# 3D point list with one line of data per point:
#   POINT3D_ID, X, Y, Z, R, G, B, ERROR, TRACK[] as (IMAGE_ID, POINT2D_IDX)
# Number of points: 365, mean track length: 4.8281019202363371
4440 3.3190827951655417 -21.555407337027624 8.9075601537454681 98 96 109 0.33589742850207011 53 87 7 81 93 448
4648 2.5645028282684765 -21.560717916909137 9.3409118474937909 141 139 153 0.59796099763472188 53 3862 7 3238 58 3765 59 3441
6346 5.3882698841120513 -18.995148905734506 9.8141496133192181 183 185 200 0.58910059410972937 7 1844 8 1434 115 1172 2 1525
4647 2.162926179855408 -1.0462535364002641 3.1381087571619806 48 59 77 1.548691503123738 42 3061 7 3223 8 2536 112 2947
6337 15.219607713773248 -20.902136444265256 2.5375153448182859 89 87 100 0.55394493422155922 7 1807 115 351 67 352 68 439
4644 -2.7296287557926782 -16.334296865987465 16.209097952520402 140 143 160 0.4108879149675812 53 3939 86 3912 7 3154 110 3039
4643 -6.4296926664582372 -16.382013765074337 18.649999330566335 136 147 167 0.46491663080718387 42 3076 7 3140 8 2498
5458 11.636767503229738 -19.255262595108917 5.8466326981194401 126 132 152 0.39118014806479418 8 440 111 983
6349 13.793167840171913 -20.653657139135316 3.6338999292146013 90 88 101 0.34963358798575284 8 1395 115 1325 67 406 32 1816
8029 -28.016537084693514 -24.744326616420775 21.751523743684608 147 146 151 0.53376201093628484 95 558 92 2848 93 2678 91 483
7372 3.867828361749035 -2.8944031569649442 3.9416801197451781 251 251 253 0.66856560448478075 117 4665 69 2753
4642 9.8769389709848436 -19.713278952312194 6.3965086456358451 113 111 122 0.5446654907511056 53 3919 7 3131 8 2202 112 2468 110 3100 117 3435
4640 6.5318979156699521 -20.055215786130166 8.1813087836330656 123 121 134 0.19902840954191239 53 3892 7 3108 8 2467
4639 4.3314262628437747 -21.629347084743696 8.2926873013274083 117 115 128 0.52754347985683936 53 3866 7 3080 8 2443 112 2660 94 4238 92 4216 93 3868
4637 2.6295955279732923 -3.2828690183239284 3.9188097806459243 246 253 255 1.4304508860183478 7 2967 1 2184 114 1300
4636 11.028647975073589 -18.423984840333841 6.6390195101846761 122 122 134 0.30205637687146997 53 3593 7 2887 110 2726
4635 12.339280952517623 -19.122753888357032 5.7052053400338609 96 94 108 0.36175978606363479 53 3979 7 2873 111 2063 110 3281
4634 10.655462874083861 -18.845821594487436 6.8206416275756752 113 113 115 0.29831314570029149 53 3563 7 2866 110 2707
3989 3.0242192341743745 -21.221450568774561 9.3466499330565131 165 163 176 0.38637166469686413 31 1260 53 1822 112 1385 59 2844
8075 -18.523446072535311 -32.833101620251682 12.917240370302174 148 147 152 0.9090244074063607 94 3675 92 3655 100 2970
4632 9.4526385213450368 -19.089966513984773 7.1980343259974902 99 97 110 0.69081688551234499 42 3086 53 3945 7 2829 110 3273 64 1630 31 3305 106 2388
7558 0.12643205488192175 -3.3588816191306097 5.4221745788710622 0 0 0 0.3166849906063719 66 1633 103 2249
4631 8.9528192934089361 -18.962790175767921 7.5420554688299237 160 158 171 0.59939303025499469 53 2334 7 2827 42 2565 8 2238 112 1797
4630 7.7819981966801173 -19.294450122136951 8.0523302741743592 154 152 165 0.41659735075449089 42 2903 53 3468 7 2802 115 1220
4627 13.28093010620757 -20.763732162802725 3.841013427842201 163 160 177 0.46107334740423389 53 3449 7 2758 8 1365 112 2481 110 2660 114 1257 113 1381 62 1556 66 1529 65 1494 67 1373
5506 1.8763910392014178 -3.300313075569266 3.7760455606334578 177 183 205 1.271456955126105 110 3567 111 2314
8077 -11.324147225164793 -17.192712775138869 6.9725222334810733 46 47 44 0.4171606965245972 94 3616 92 3659 98 2899 99 2913
4626 6.9943450469625752 -19.649857647670444 8.116668005440479 128 126 139 0.21004432566691877 2 3060 53 3416 7 2751 110 2565
4622 5.824423391164073 -20.063261593799698 8.543209526207999 163 162 170 0.68381592414590631 53 3382 7 2718 8 2155 110 2510 59 2931
4621 7.3158127961839057 -20.549090962045362 7.4751057338775615 145 144 152 0.31528559873718176 53 3379 7 2716 8 1251 112 2418 110 1315
4540 -5.9716554824025723 -18.480190667270922 16.739303908882036 122 129 145 0.33473820011173749 53 190 7 1579 8 1236 61 1186
4619 3.3671344390409619 -19.766458673282287 10.09850515159911 133 132 148 0.26482942030700879 31 3117 7 2710 8 2461
5562 1.6043370982258405 -4.5433134342186756 3.6293274097710362 176 183 201 0.087267000433780439 42 3384 5 1085
8123 -3.4473231216360016 -26.346090511523311 8.4157518486785854 40 39 44 0.59248128463209782 94 4392 92 4433 100 3770 98 3248 99 3293 96 2645
4616 7.3117807912835566 -20.853377824717985 7.3889955607989828 105 103 114 0.15483369026905827 53 1970 7 2703 113 1323
4613 -0.35079273999962013 -19.30775689042845 12.515517487499848 111 109 122 0.65846520510253381 31 2618 7 2691 58 1824
8125 -10.347054976375926 -21.760355035799702 8.6131065541873681 33 39 45 0.40023519126652807 94 4196 92 4448 93 4082 96 2418
4610 -2.2538438661422266 -19.439350560243309 13.802494689396678 89 92 99 0.33988267604076822 31 2609 7 2681 112 1338 103 2216 102 2093
4608 6.2630396352354385 -21.208210641246826 7.6923515511308462 153 151 162 1.4767019073880534 53 3337 7 2676 8 2113 59 3287 31 3266 113 1305 116 1148 92 4194
12211 6.5876182414828506 -0.13589461687391205 7.8678469951248093 108 114 129 0.069343217693314696 13 1980 47 1998
4606 4.3108756880224615 -21.646234637785565 8.4041194998077486 155 153 166 0.16879265003514943 53 3296 7 2652 112 1403
11855 19.637561284211053 -0.98674136997061146 4.7771116247069045 46 47 42 0.98098943201622968 43 631 44 745 27 599
7234 20.139775696021552 -22.474383334658668 -2.8841178598825765 75 74 79 0.41761127705078055 115 2454 116 2175 69 2391
4605 4.2621036673209831 -21.674793216187037 8.2613378998155493 133 131 144 0.72437265835155118 53 3289 7 2650 112 1388
4604 4.5687370504590401 -22.201327757380799 7.7111432772787625 81 80 86 1.1671274716495195 53 3860 7 2647 112 2650 59 2795 94 2406 92 3569
4593 3.9947431880723445 -4.7347113501507092 3.7978263580163678 252 253 255 0.063675549391052633 2 2851 7 2308
7993 -2.1436876546479473 -26.628516124793762 8.5404276508288177 75 76 71 0.69687473565025415 95 3083 92 1832 93 1777 99 1697
7336 22.759085208759466 -17.862795500846769 0.16975210974383931 93 93 95 0.29652308390040183 116 2139 69 2359 71 3204
4571 8.8033582527196081 -20.219809790673448 6.9317395101669677 96 95 101 0.29141247278121307 53 2093 7 1745 8 2184 112 1687
4570 6.9596462557039844 -19.840195768522189 8.1813541718346414 120 118 132 0.30736382951683977 53 2080 7 1743 8 239 110 186
6968 14.193491782746879 -21.081913368812693 2.743277735369988 155 153 164 0.71633498067332213 65 811 117 2010 66 1511 104 825 67 2222
4563 -7.7159932413273911 -17.371691270503039 18.54327410878836 78 90 106 0.75770291962078129 2 1202 53 1954 7 1710 61 1261 60 1558 31 2698
4542 0.91095192605369513 -19.633300089094355 11.785632434935438 143 141 153 0.4375645571084128 31 1395 7 1592 8 117
7170 23.872480083490299 -19.506213182519545 -6.8008396448359187 87 87 87 0.27263572843809564 117 4385 68 3276 116 2364 36 8622
4541 9.5236640465697562 -21.329959404270358 5.5982868987000547 100 99 104 0.51397816497964766 53 1956 7 1583 115 2000
4510 1.6003452011656005 -22.529597144400505 9.2839687144611922 132 130 143 0.44052376993726727 53 1733 7 1435 112 1257 58 2804 114 586 113 665 92 2242 59 354 93 2125
4506 -0.75095991529746675 -6.4855145203056557 8.2492832931437174 139 125 116 0.65617841394520549 53 2714 7 983 110 1724 62 1276 115 1212 66 1190 65 1177 104 1689 103 1839 106 1358 116 478 102 907 109 1582 100 2747 114 252 101 1134
4499 11.64669828126557 -19.16475522042025 5.9502804576208712 115 113 126 0.3073742861217858 53 928 7 740 110 570
4494 12.139561135741046 -19.982386135794624 5.1624237907899282 104 101 118 0.27588078543712946 53 2299 7 590 8 354 110 2679
7192 0.92543617339300888 -3.9409499291882217 4.5429921542064919 177 175 188 0.41095041329433907 67 3071 68 3447 33 3366 30 2453
4491 6.938897619264158 -19.257093257857054 8.7076455584713894 144 142 155 0.2480264143408232 42 103 53 626 7 552 110 1490
4487 8.7182851514668798 -19.600896864012771 7.3626873224142937 77 75 88 0.69130407299808694 42 1343 53 2220 7 530 8 319 112 1730 2 1566 110 367 64 891 1 1595 5 547 115 1233 117 1768
7405 -1.6685547952112316 -18.848197948029441 13.8113609375116 135 140 146 0.52962517733802617 104 2034 102 1615 103 2226
4466 6.9520234704623745 -20.815973632064843 7.8355985751202626 145 144 152 0.20157125297191167 53 329 7 259 8 129
7830 -3.3177809156418165 -25.557591074542717 9.8785142033852456 100 104 107 0.61304179921283641 94 2389 95 1868 100 2124
4455 2.0934495695700273 -20.452165968837637 10.541245672781566 140 138 151 0.44022602217382889 53 179 7 174 8 64 58 426
4448 5.0856895739832808 -21.371371009970197 8.1472696995825551 150 148 162 0.26421558418671343 53 159 7 134 8 37
7766 -0.23362999671936172 -4.2212177525033043 5.0109106524352658 192 196 207 0.64198271534229334 58 4131 94 4783 95 4227
4391 2.0724344607063148 -4.6714717770317682 3.3254061378605373 173 176 195 0.23187315348724408 22 3782 2 3544 7 3528 114 1624 60 1993
4383 -0.17187439059803442 -3.2708382703808687 5.6356012775668223 196 179 169 0.083973260486620072 31 3582 2 3520
4382 2.0052572597403664 -1.9268320137946464 3.522956233082315 107 119 135 1.4459046590043076 42 3334 2 3507 1 2542 5 1022 6 273
7309 9.1365528971020069 -5.1271483238774396 3.2884706044386331 187 165 152 0.24232640429614083 66 579 69 679 107 540
4370 -5.1867422637460008 -16.216607998127014 17.585122008914315 146 158 174 1.5941597786888171 31 3476 2 3425 7 3484 2 3475
4367 5.3800030254900237 -5.5663088031459553 5.1174496001788929 203 192 186 1.2514371114667737 53 4245 2 3400
11966 9.2583677003773328 -1.0097149045909051 5.3672125177371672 148 128 131 0.62645270368659423 39 4636 9 2290 44 2373 28 1837 43 2208 27 2046 34 4209 35 5048 10 2014 47 1923 12 1575 11 1365 45 2180 49 1533 26 1374 50 2650
4360 11.967498206588473 -19.054533971318168 6.0043889283586891 90 92 104 0.64219411349372724 42 3168 53 4197 2 3341 1 2406 64 1779 111 2120
7862 -15.062634098336744 -17.975469256257803 22.568353311378225 122 121 127 0.50668094307515321 58 338 95 2653 91 2327
4359 9.2585292857647623 -19.086749114871054 7.4052211692015764 127 125 138 0.39556230176876289 53 4118 2 3337 7 3275 8 2587 112 2820 110 3374
4356 7.1559556152064099 -19.297503891871443 8.3788380629668371 145 143 156 0.35029638673080638 31 3418 2 3326 110 3363
4355 -4.8945248342627172 -16.011236417992496 17.905194058112471 119 126 144 0.28513719288891659 31 3324 2 3324 8 2653 112 2859
4339 6.3173423897878793 -19.963828247564646 8.3518602067796976 99 97 111 0.20950538283089964 31 3279 2 3206 112 2426 110 3243
11584 4.6121074739502026 -0.4244148887092245 7.6036539049403808 46 41 38 0.67103126717137818 9 1476 13 1336 28 1159
7586 18.378759897859368 -11.465967881489687 1.0613803968283853 75 77 76 0.79611407913236032 67 1834 105 3176 33 2846
4317 4.8872390358778626 -20.461621049622227 8.818296813747768 137 140 155 0.38130270371984909 31 3102 2 3023 8 2126
6707 13.068358820886514 -21.926703900999446 2.9627817408452186 101 100 106 0.54795365594681322 104 1756 67 1249 102 1984 117 1916
4308 8.6694644353057111 -17.840925152222958 8.5148402671688643 144 142 155 0.28480716160631148 53 2527 2 2737 110 2712 111 1686
4307 9.0069330831220036 -18.201127875797717 8.0536107964375727 93 91 102 0.32615413702503288 31 3176 42 2609 2 2732 53 2480 110 1738
4305 9.5514611367483866 -18.778163626275781 7.7387262148048936 156 154 167 0.88712894405223075 53 3560 2 2727 1 2117 64 1635
5542 1.2391262956873448 -2.3172110404329826 5.2988798580641392 143 150 166 2.0607339248381185 42 2249 5 717 1 1382
6711 16.705864533414413 -21.208763780613914 1.4398025653172801 70 68 73 0.65310297605784684 115 1379 67 1332 106 964 7 455 8 1368 117 2159 68 1574 69 1811 107 793 33 1033
4302 9.4915424450819064 -19.08615682503272 7.2779172085471808 118 116 127 1.0828800187793153 42 2572 53 3529 2 2705 7 2835 8 2246 112 2489 2 3234 110 3116 106 1958 107 1408
3935 -6.4446416846730505 -17.853881167398789 17.463736324296566 137 151 165 0.38303338802577941 86 211 53 257 112 1311
7506 10.651159285429648 -3.141073713648169 3.8886590483797625 146 137 132 0.9685377559664019 106 1898 109 1205 105 2135 71 1144 80 2856
4301 9.2210170569371286 -19.239163846764036 7.2311072744630218 85 83 97 0.50715280202699431 53 3500 2 2688 7 1890 8 1470 112 1785 106 1020 117 162
4297 10.440851804484431 -20.195389682034818 6.1541347270167925 45 45 53 0.27112464704167299 42 2898 53 3455 2 2671
5470 5.4418669098105363 -3.2488374446108388 6.9198598238463092 226 207 199 0.3308778222537056 8 2054 111 1611
4295 2.4731156882165473 -17.547239706468648 12.184439531265125 126 123 140 0.48304334222894768 22 3219 53 2300 2 2668 110 2569
5460 9.6856362439050958 -18.699114316348386 7.9324191601120111 98 104 122 0.20276460499709373 42 348 110 1758 111 993
7943 1.0194539769158768 -3.1208219657222962 3.718790971136765 254 254 252 1.2651620377525192 94 4919 100 4265
4278 7.3083789902796461 -20.740543353225505 7.2770880948465138 109 108 116 0.82846479083983926 53 3361 2 2568 7 2697 8 2129 112 2411 110 3045 114 1395 60 1498 95 3861
4271 2.3868895630155165 -19.663797582933721 10.758414596483663 151 149 160 0.61948787004542971 31 2625 2 2545 7 1611 58 3032
4255 1.308349540210836 -1.9912796188381865 3.8651076496933805 55 66 77 0.48264236897417873 42 2129 2 2192 1 1930 53 3767
5484 1.1510728171481568 -2.657171071358567 4.9674563329963144 239 249 255 0.66604369175691569 110 3292 111 1985
7528 0.10658630897530982 -15.520044400940726 15.434038155422835 101 110 116 0.64956887805830998 75 1817 109 2809 4 2129
4251 10.414791863263584 -18.728904356465513 6.9165912206179634 130 128 139 0.42997054390066902 53 944 2 1766 42 1531 7 774 8 500 110 1751 111 986
4247 10.49244215197044 -19.008259721872705 6.7855745113905419 134 134 136 0.81419666850823103 42 2587 53 912 2 1749 7 1972 8 1540 1 1648
4244 9.2506773242455811 -18.82649462168936 7.2519884072300371 128 126 140 0.70993004670209869 42 2569 53 3526 2 1685 7 687 112 1806 110 474
4233 0.60123979323640642 -17.644838502937208 13.250249538493511 143 141 154 0.32138320646414992 42 1379 86 3225 2 1492
5406 1.5753538334484993 -2.7490515521499637 8.296400929986433 215 214 222 1.0373920820695761 31 3252 64 1607
4222 7.3109880243531027 -20.548284009719218 7.4788060559231822 127 125 135 0.40889246277912344 53 3380 2 1359 8 1252 110 1314 60 890
8166 -17.693820845621204 -32.046075075520854 13.5248508837974 128 127 132 2.2992677693974244 94 4810 92 4924 93 4461 96 2902
4215 4.3567571946711805 -20.182521712534545 9.2961715927811266 123 120 137 0.31658749680943377 31 1358 2 1273 58 3019 59 1945
4212 -1.6917308511601934 -18.789880036163325 14.032817077401326 100 98 111 0.41973882154071834 53 1958 2 1243 66 955
7661 4.6263748765818598 -21.111199692491631 8.4794378263339016 112 110 123 0.60152603522983139 7 1522 53 1856 94 2565
4210 2.1466279665883912 -19.860554021301056 10.751860929874013 139 137 150 0.32741744114402443 31 1363 2 1232 58 1833
4207 -2.3444750270020833 -18.771725216147683 14.356344432177485 99 97 110 0.60366780952437893 31 1448 2 1218 7 1631 103 2235 102 1628
4202 3.1923452997225579 -19.231849830578632 10.67309090003473 152 149 166 0.45655656349328261 31 185 2 182 58 613
7579 4.3984720317828847 -3.066831233998172 5.8363272283148984 224 219 225 1.4688542909952171 68 1102 105 2574
4200 -5.2500748739215339 -15.654904956836935 18.308807860816682 105 104 118 0.77421296244614857 19 37 86 2183 118 2145 22 1927 4 240 42 1505 53 2338 77 601 31 1744 2 1527 7 2041 8 1632
4198 -4.5857879936262176 -16.058924609258202 17.693887748877316 66 67 75 0.40565309458652654 22 557 42 282 86 583 118 2058 53 778 112 380 8 526
5521 1.024923906448729 -2.5837355893844363 5.2599804864255297 244 254 255 0.93394920152784788 110 3672 111 2404
4187 1.7393876534828823 -4.8968743616004566 3.4451932672996728 245 255 254 1.2660733673398936 42 3484 53 4443 2 3634 7 3616 8 2912 1 2670 5 1185 6 400
7975 -27.569403094708424 -24.821877137303538 22.475868345256387 75 74 77 0.41238915459328995 94 1125 95 652 92 1057 93 1000 91 533
4182 2.6803269685677416 -5.1838731395642998 2.8554858061972412 247 255 255 1.4458531751153343 42 3485 53 4430 2 3635 7 3618 8 2909 110 3687 1 2646 111 2417 6 385
5569 2.5309999281503317 -3.6968296402674587 3.67459435399492 180 188 207 0.14731271036517382 42 3447 5 1139 1 2620
4174 2.4330650126519537 -3.9815811655149531 3.6377784066429655 247 255 255 0.86683943503280347 42 3435 53 4393 5 1126 64 1979
5625 -0.67200128351727439 -4.3227878321860267 5.2966908180962502 190 174 161 1.4485178281785371 4 3100 64 1905 54 2252 53 4326
4160 2.0839233559020212 -1.3853340632345084 3.0451474210048488 155 164 193 0.37911061320617634 42 3280 53 4295
11763 8.7149259156645513 -0.066523371215353316 4.4517906335844932 179 167 171 0.45079140511864518 41 2209 43 1813 47 1471
4156 2.4628929678721865 -20.532512385939391 10.076641901552289 146 144 157 0.60449392927782541 31 3409 53 4216 7 3387 8 2672 58 3947 91 3738
5551 1.1942244479773811 -2.3495227743248428 5.0046598541940979 86 93 109 1.0604249663270726 42 3303 5 991 6 207
4150 2.0168485117400081 -1.9404208755247567 2.9652751366153423 146 157 177 0.33476730163754903 42 3181 53 4147 110 2876 1 2366
5537 1.2524840477807244 -2.7807310567560748 4.0716818481807806 247 251 255 0.033046634585703186 22 2333 5 433
4140 4.2892405350709701 -19.636641297814634 9.7500412938614964 147 145 159 0.36267820552012636 31 3281 53 4092 2 3200 7 3256 110 3235 58 3805
4132 1.7720313496305971 -1.9896675390802401 3.0826043056639705 164 175 197 0.81499494124329008 42 3112 53 4025 2 3127 110 3294 1 2357 111 1990 5 805 109 3012
5463 9.1578844046227221 -17.74240275377721 8.2819751892774036 136 142 162 0.19062436883705713 53 1042 111 1031 42 1610
6854 5.594163585215739 -8.4595140673867029 3.2949135945730239 231 214 207 1.9151802267734996 66 2092 103 2882
7884 -2.888839382707407 -24.884275036292021 10.078787283803139 29 29 37 1.0924173294057864 59 2673 102 1932 95 3150 92 2220 93 2115
7517 10.13237756350518 -3.0405554671804094 4.2706017862381458 123 114 107 0.97547258696992245 65 1425 87 1740 106 2361 109 2388 105 2973 34 3644 33 852 81 2502 9 1575 46 1021 10 416 85 1179 83 1883 30 2110 80 2853
4130 1.764168420833794 -2.1003263439235296 3.0240468132430975 136 146 173 0.51563382874455987 42 3107 53 4020 1 2289 64 1684 5 677
4128 1.605308076265848 -2.7544811563209621 3.8591668452174042 244 248 254 1.3106101438394595 42 2970 53 4015 2 3257 110 3148 1 2177 111 1981 106 2179 117 3606 69 1249 107 1551
4125 -2.0048924616686197 -17.772140564799781 14.910695728569452 106 110 120 0.57031069971949988 42 3068 53 3901 8 2211 112 2383 62 1931 104 2485 61 1957
7563 7.2588331732066278 -3.3543485169820224 5.7500669672951563 115 99 92 0.66507864943860417 13 1031 23 1379 21 1446 24 1117 16 2965 15 1636 76 1650 74 1550 89 591 56 1647 75 1522 22 2585 111 1623 88 505 87 1393 62 1523 69 1747 106 2355 107 1368 117 3293 8 2066 115 1929 65 1420 105 2461 47 1792 10 1145 48 1104 12 1401 11 697 45 1174 49 1403 46 977 25 809 85 1107 73 1486 71 2163 30 773 84 1868 80 2382 79 1956 72 1609
4120 1.936800842880686 -1.8989687439182685 4.24769668664492 165 177 197 0.26503590165938373 42 3030 53 3833 2 3279 1 2318
4109 -0.67693125850564662 -4.5266249122700843 5.0633688601428206 114 120 131 1.8797406778803984 42 2646 53 3648 2 2681 7 2883 8 2261 2 3230 112 1573 110 2616 1 2098 114 645 113 1292 61 1067 104 1356 103 2173 102 2359 62 1913 100 3549 98 3044 99 3088
4108 0.033145421044320562 -15.459439137529865 15.31304477921331 107 105 116 0.33229483710777763 4 2121 22 2882 75 1561 53 3627
5567 1.8414974331892642 -4.1055614622179952 3.8576603809190302 173 180 198 0.17741827339909624 31 3657 53 4385 5 1110
4107 0.17147713984414126 -16.270673798171853 14.738784072648158 144 143 151 0.50152221278397013 86 3386 53 3574 110 3073
4106 8.444957789184393 -18.799699375762888 8.368434712903591 127 125 138 0.56436560770110045 31 1671 53 3548 7 737 112 1813
11653 1.297578536103728 -2.7475389737101117 4.0257830156739489 62 72 74 1.7119026708039944 44 2858 28 2334 43 2994 26 1679
4091 0.80532544390564231 -20.895411545258501 10.886606956902748 116 115 121 0.615074335847134 31 2557 53 3293 8 2100 112 2316 91 2827
4083 1.9885972331270043 -1.9805942984858924 3.5170282156584483 40 49 57 0.44324608183296704 42 2237 53 3108 1 511
4081 1.4968403463750946 -1.9826106838295834 3.7340361965017079 136 150 179 0.43173772884059924 42 2149 53 3047 2 2229 1 1289
4074 1.9214711844349608 -1.9799562455357924 2.9428899400000939 104 118 144 0.20847110023992357 42 2760 53 3000 1 2195
2171 0.46351621144015376 -3.848145422077264 4.8700752850324553 172 179 197 0.65668362235354327 57 4648 90 3116 77 2244 55 2870 58 4172
4055 -3.0243581883905648 -15.44532269807679 17.179649624344677 133 137 149 0.31073744232670036 42 368 53 2486 110 177
2357 1.4664124375730339 -1.5013939067181326 3.1586600995232246 56 66 74 0.12676104622812215 15 3479 74 1794
4042 7.965114826457433 -19.572484245921466 7.9659366619945295 153 151 164 0.42354751433490601 31 1564 53 2198 2 1554 8 321
1320 1.8471675921361772 -2.4713440111637865 4.5786857568150641 42 50 52 1.4669002238568765 15 3928 21 2768
2139 -13.657876844702315 -16.364582225072596 22.925867296571798 117 122 128 0.87177595959727971 19 3061 97 2000 90 2549 86 3919 118 4108 4 2781 58 3017 59 3457 94 4342 95 3921
4041 -5.7599372909964703 -16.2724954355702 18.141543920826848 123 130 147 0.49016890723870299 42 1393 53 2182 2 1430 7 680
2654 0.97439688291131477 -4.5731625560187776 4.0270335847347916 244 254 253 1.37571049001044 17 4109 89 963
4034 -2.6902575497678152 -17.153263808078265 15.61858701805048 94 98 109 0.38602756499906016 42 2513 53 2137 2 3054 7 2809
4031 2.234967017454637 -18.377918046370169 11.700527655983239 146 144 155 0.4088551208655879 31 1570 53 2105 110 1285
4029 4.6705660024862938 -19.444590132368539 9.8709369328940646 182 180 193 0.45574833233075662 31 1484 53 2070 2 1439 7 401 110 1317
4022 4.5356558105964417 -19.60868732214303 9.5932304812900817 168 166 179 0.48774086122334492 31 2653 53 2020 2 2585 7 334
4019 -0.086250926091362021 -18.795258841830943 12.928460720377592 139 138 146 0.4237097618878829 31 184 53 1991 7 329 65 955
4018 2.2823359555610683 -19.350841975542796 11.130219738789044 180 178 189 0.15029838567774878 31 1444 53 1989 2 1314
2051 1.1602583408454474 -3.9807352064229788 4.3734760532021983 236 244 255 1.1907769757998652 24 2318 76 2095 86 4456 20 1928 89 1067 4 3194 77 2240
3998 4.8165249638980479 -20.662955963576287 8.7087995495005526 163 160 176 0.47613606881065379 31 1313 53 1916 2 2521 7 189 8 81 112 285 59 1887 94 2608 92 2281
3992 -0.53656300770614818 -20.118939095893431 12.302333786574582 142 141 147 0.70028825537879391 31 55 53 1846 7 1525 8 1178 112 111 62 225 66 863 65 830
3991 -3.1006580576164464 -19.681477222752051 14.245432622645298 83 88 94 0.5348735821886097 31 1334 53 1838 112 1297 61 404
3978 1.6291723095758723 -2.110165670814554 3.628420921579715 126 137 155 0.17434900616834953 42 2115 53 1473 110 868 1 1248
2075 1.4313177987939187 -1.4473124982773267 3.2213690429054251 57 68 68 0.9031720972624192 97 2806 76 1889
3975 2.0700328899811349 -2.0838470600951688 2.9286341315093631 117 126 143 1.1422960454563664 42 809 53 1454 1 1254
3970 2.0392810938614145 -2.0643267173682149 2.8874933215606862 97 109 132 0.56844178302256843 42 2084 53 1441 1 1244
2067 7.2724445857681213 -3.3235961003989094 5.9550090679239647 171 156 151 0.15763910967701783 21 2764 76 2192
3964 1.766076926114164 -2.0205666697773705 2.9880484180680753 132 142 169 0.18786093759511061 42 763 53 1418 1 233
3946 4.8454492521024886 -18.693105943400873 10.205093633318221 177 174 191 0.52413876241579105 31 1596 53 639 58 2113
3936 5.8999333265178437 -20.453422956908629 8.3235737446948743 155 153 166 0.8183453916310629 31 90 53 299 7 244 112 385 110 1251 59 1940 115 38
3931 -0.56037571939688247 -19.375513117452503 12.53124818745836 128 127 133 0.30480569611987257 31 96 53 200 58 470
2250 -2.4438486051164912 -0.52402154793188238 14.08427058539646 125 114 108 0.32107767436202889 21 2521 20 1796 55 2730
3927 -1.1908951135081112 -19.926966630340207 12.845319382861051 135 134 139 0.36838136933501564 31 61 53 154 7 163 8 61 112 1339
3923 -0.60192926363192201 -20.754247445075517 11.919395068946733 78 77 82 0.54690602187488013 31 1269 53 88 7 1496 112 1296 66 825 65 776
3918 1.4284217132908064 -2.4285882711175386 7.6184345358814021 230 228 239 0.075167038888343835 2 3412 5 971
3907 3.2396914630106748 -3.3439144920985933 3.581051395848736 169 172 191 0.35825017945931437 31 3704 42 3456 2 3622 5 1154
2290 3.8588114925573227 -2.8419967994143369 3.8384611564378659 230 233 252 1.2622781974751898 90 3224 20 2066
3890 -6.5236686950951022 -16.140639313299317 18.664261625292774 128 140 156 0.48143713774118885 118 4495 42 3155 53 4185 2 3309 7 3346 8 2648 112 2852
3870 6.5253127724535052 -19.068050017943396 9.1603332359984542 164 166 181 0.24959341017596079 31 3300 42 2908 2 2666 53 3477 7 1870
2697 6.418208540561765 -4.7002421374989538 5.2663160340863211 160 140 126 1.2668602113883569 13 2519 21 2495 24 2218 89 975 77 2181 86 4384 88 1817 75 2109 22 3661 4 3110 42 3309 2 3470 7 3448 8 2737 1 2496 64 1873 5 998 54 2233 114 1554 113 1756 61 2230 62 2179 103 2805 102 2710 99 3517 98 3473 6 249 48 2692 12 2118 85 1916 109 3115 73 1684 52 2793 110 3459
3859 8.6906714173831769 -18.946796192283784 7.9767722239138932 89 88 104 0.42583377259960625 31 2771 42 2573 53 2358 2 2703 7 1947 1 2108 8 2257 64 413
2178 2.7855515535108633 -3.2653901064556301 3.9403175495937131 167 170 185 0.50424965722500792 23 2614 90 3155 77 2296 89 1138 56 2418 22 3838 4 3253 58 4212 78 2780
13979 1.701956019204681 -2.2681106777558804 3.4590393881676489 23 35 47 0.87909204633810523 52 649 79 750 72 350
3784 1.6014659568262934 -17.250802054460006 12.718677846306639 161 160 176 0.23025401081787708 31 404 42 269 7 709
2094 -7.1589019725083345 -15.988301830660705 19.188558623999079 95 99 110 0.72159452720145945 19 1532 90 1092 77 1742 86 3418 118 3475 22 2903 4 2086 31 2781 2 3049
3775 -5.1686081409108935 -16.669215128886979 17.587480335815073 118 130 146 0.40606927672947751 118 207 42 94 22 486
2828 2.5508965124747829 -2.3840205430500205 4.5468469497512798 37 41 50 0.80924450756508204 77 1667 55 2040 4 1834
3658 4.486120735433154 -18.650613696518828 10.424647461051363 120 119 135 0.53893742532071109 4 956 31 334 53 597 7 1852 8 357
3751 -11.223621340544248 -11.148044710552581 19.315303310010382 69 76 78 2.1504009878576591 22 3734 31 3543
470 2.138249608814331 -1.8153179659518428 3.1657230121346926 233 220 207 0.57678133190074643 16 3210 15 2843 17 3565
13911 -0.51106044180674071 -4.3844995014370891 5.1212059507776528 227 234 252 0.51858753819846815 87 2109 52 2856
13881 1.194222081694146 -2.5667776252938412 4.0202225184371674 49 58 65 0.17909573725029659 84 390 52 373 51 304
3605 -5.7772401789742762 -1.3861346436662179 15.066253822903734 149 150 144 0.86255229693174884 55 2361 57 3917 4 2857
13852 -5.5139974081657614 1.5668554267093546 16.851679177189919 121 122 117 0.26663669398677808 14 2435 17 3658 3 2294 16 3698
13832 1.3902253909396471 -2.9468921355058462 5.0592030755728779 74 87 96 0.77344855357169395 30 2363 80 3371
3559 2.4458799769870772 -2.314394610245726 3.3782310738307304 53 57 68 1.8773369383830711 22 2407 75 546 4 1783
2164 -10.743607291924269 -10.197515048509361 19.654218841399722 77 86 88 0.11631310573901336 18 4020 90 3024 19 4234
13827 1.6919690039744559 -2.2050485638566553 3.2176709094717664 62 71 78 2.0330148747546133 30 1486 80 3202 72 1828
13825 1.0989700119799934 -2.0043568128283358 4.5549083065321012 176 190 201 0.028385547886944307 80 3133 72 1777
3513 1.6130039232694262 -3.51041764735352 4.3096402263889679 178 185 203 0.8264345990674693 55 2874 88 1949 22 3832
294 7.338055211208288 -1.1683159931002032 7.3173909742309391 188 178 187 0.1972084174608682 16 756 15 730 17 821 21 889
9974 31.339499498449552 -8.7213279105791077 -12.293868648607104 130 113 105 0.1864040697538506 35 4461 36 1671 38 4890
10567 19.776155391600057 -4.3565119775066732 -3.9528485590677764 131 145 174 0.70304747374742604 36 4989 38 3430 37 2923 39 2247
9467 23.411782746363791 -11.257370481952952 -0.22397056746025046 77 77 77 0.96239647786276117 33 3309 34 6329 81 4171 71 3446
10568 4.6846490508333725 -0.19303811089783254 9.4335736966693471 133 143 238 1.5688511897031745 34 3965 37 2938 39 2352 41 1669
298 7.4149763039815149 -1.1173765693832929 7.2684265830439472 200 188 192 0.74308564612127004 16 778 15 755 17 846
7125 19.134154920383494 -10.65303737634931 1.8620054684917251 103 102 108 0.77075467504223516 106 1558 68 2171 69 1602 107 1278
299 7.3986398530178628 -1.0732877411155615 7.3457580215794263 207 197 205 0.60438534813874134 13 435 15 762 17 3203 10 1305 38 3988 48 320 11 789 45 1354 49 142 25 338
1626 -11.767589373121464 -11.002271025668239 21.065295647412842 103 107 110 1.0866239498465018 97 3007 58 4084 78 2621
10572 17.293588826771959 -10.112064768796754 -1.6945831549494454 88 93 96 1.4254144529405341 81 2960 37 3240 39 4985
5389 1.2474798879883615 -1.9216711080595508 3.7520368344464154 59 68 77 0.65250513240806052 4 1759 22 1232 64 264
10575 17.800281263872382 -9.5606981149856178 -1.5694395725461217 25 29 32 0.33251286981735145 38 4599 81 3783 37 3274
303 5.1107141303793746 -0.83983401375890654 7.9643874502137058 188 188 190 0.17995803465967722 16 833 15 778 17 911
5394 12.441356394510725 -18.875499317166994 5.8165030816001062 124 129 135 0.16477085352791393 42 1570 64 909 111 1709 32 2173
6285 13.141034698940455 -21.01306010927658 3.797225205334454 100 98 112 0.22025874698927769 114 803 62 822 65 849
5397 1.7298260070868732 -2.0509754651407572 2.9277628269459548 164 175 195 0.83085095466992698 4 2342 22 2371 64 1249
5399 1.776304306905514 -1.9973696899572986 2.9022129449382863 179 190 209 0.85980695206201829 4 2348 22 3089 64 1256
6790 1.4699299425589731 -1.731647977578991 4.211950009010458 105 113 121 1.1577177335493902 61 1784 62 1996 104 2477 67 2662 111 1463 112 991 115 1749
5400 8.2576045762686281 -18.76455606187525 8.3970187539298706 151 149 163 0.34560182322316785 1 2113 4 2470 64 1382
6283 9.7128762032759095 -20.545747263628868 6.1069423709140551 137 134 151 0.23022203836804347 7 350 62 117 8 205
5402 8.7604028655119723 -17.901847770969692 8.5823734069575224 121 118 135 0.72115640171005435 1 1673 64 1389 53 3603 109 2436
315 4.9998715771315876 -0.70519880268982804 7.8759579649228089 114 112 113 0.36082513915803577 13 521 15 849 9 454 28 339 47 357 48 409 45 437
1706 1.0327557871306376 -3.8393794086160833 4.5439968691403694 238 241 255 0.41741026307504064 15 2566 24 1983
317 6.356695112250617 -0.50211169598654637 8.283320781097844 163 163 232 0.29906894751534735 16 2403 15 880 17 1033
2015 2.5484317210997038 -2.8818265788213289 4.1858251425039699 144 151 157 1.1131914321025607 23 2152 76 1604 90 2337
7854 -20.821761392271164 -19.060929164396139 21.296479841222428 159 168 173 0.3773261779692475 59 1553 95 2446 93 1153 91 2194 94 3973
7129 23.803189323552523 -21.914981767009905 -8.2926520241202706 78 84 82 0.72088999991262082 67 2573 117 3614 68 2344 116 1803
319 6.3205561400874748 -0.50452686867944874 8.1476897179977676 183 183 247 0.36521442437592333 13 544 15 889 47 1234 48 1337 11 803
320 6.4775131331109295 -0.4502375592433826 8.1870775057589142 94 96 144 0.33153955245074557 16 2427 15 901 17 2527 18 3201 47 1247 13 1323 48 433 11 266 45 510
10595 5.2143790806533428 -0.84845291797815903 7.9320887488490683 161 164 165 1.628306714531508 13 2223 37 3616 39 5103 40 2611 85 1790
11922 11.534020330152432 -2.7058867285953716 3.665164903762669 195 183 171 0.65493328330442502 28 2037 27 2260
324 4.5921398064797101 -0.38376613621664346 7.6355080063343124 48 47 45 0.74115021956240157 13 565 15 926 18 1019 9 520
1271 -1.8672776678941101 1.0380843914127853 14.507104252955427 78 79 67 0.34938236289937469 16 2575 23 2038 24 448
10597 23.880172761251973 -5.7536485889622 -6.9140903004806171 28 35 41 1.7372845848851284 35 7373 38 3296 37 3626
9878 15.757001333582942 -4.9378111392350696 -0.49564515621398725 120 146 242 0.91999635959881609 33 2739 81 3212 37 2564 39 3436 38 3175
10599 7.482867778909756 -1.0149951232636505 7.4063773816925886 211 199 203 0.32580251659708165 36 6643 37 3636 40 2378
327 6.1468969061335512 -0.19201073439656818 8.1284260329328415 214 203 239 0.17696661712129377 16 1032 15 944 17 1132
5415 2.3417695099073481 -2.7528672415415341 3.3530792669537535 198 206 219 1.775467073920427 22 3842 64 1912
6742 1.81642817995714 -5.2864944629336623 2.8698763228007906 149 148 156 0.70428273564623123 65 1812 67 2705 103 2385 68 3102
8138 4.8926166400384909 -6.651267967203963 4.6990367902818688 148 126 110 0.42155932562153731 94 2893 92 4579 93 4191
5416 1.3553726786538014 -4.5768954923362717 3.8105813307978629 248 253 255 1.3801608471952023 110 3594 64 1926 106 2807 69 2649 33 3361 84 2808
6235 1.3001500927392402 -2.4382791513908799 5.4122553062432761 237 246 253 1.6046394839377462 112 990 60 1264 115 1725 61 1476 67 2013 98 2384 99 1139 96 1565 101 1215 102 1769
329 6.3582795959554019 -0.22021997339983257 7.9963843026088552 105 101 152 0.62771021473040833 16 1028 15 946 17 1127 18 1050
7115 16.449316021078946 -21.700629894960038 1.3125392611913558 146 137 140 0.26655172097998125 67 249 117 2098 68 1507
5417 0.69096067473651857 -4.4159235215755563 4.3473498773667982 177 184 202 0.16638447760623826 1 2583 42 3379 64 1937
330 4.4706237780970337 -0.3069350623134019 7.6208862024753552 48 47 45 0.91860160090774823 13 585 15 949 17 1153 11 284 49 189
5418 0.22993813969806848 -4.3090621216772282 4.6695046465673107 170 177 195 0.16742418054075428 31 3623 64 1940
331 6.3729519338874718 -0.19353963112577457 8.0048625205856538 151 150 194 0.3535835618094984 16 1038 15 953 17 1147
332 4.4646686065727339 -0.28929987460059786 7.5991170465205586 50 48 51 0.37028284559860847 13 1371 15 955 39 2521 9 1501 44 1682 27 448 25 980
1279 6.0675414564867953 -5.0283950797865833 5.2494461188034576 153 127 108 0.27915387177205297 14 2490 23 2296 74 1725 88 1715
334 6.2733316029292006 -0.096979214376753886 8.0221253344564136 218 209 251 0.46850554662189259 13 603 16 3332 15 975
1273 2.6653265980108625 -3.2832517804269692 3.9877267648485062 119 117 128 0.4453254149805001 14 2221 23 2134 54 1835
10607 22.584147677974261 -9.7733846043878199 -4.1706993375111843 100 105 109 0.41617431243896724 36 7474 81 3477 37 3822
335 6.3264477927971399 -0.11149005048659855 7.9708358117699074 201 200 234 0.4647510499487213 16 2578 15 976 17 2645
10608 22.491074857179807 -9.4214815051768692 -3.9524245607104187 76 80 81 0.40855254207414698 35 7228 81 3683 37 3831
336 4.4266428034774323 -0.22778128262542316 7.4799289962380717 39 40 39 1.3468395881272468 16 1116 15 979 9 1531 25 413
10609 19.718520014710858 -7.68140426179942 -4.6258089660059616 39 52 59 0.14201906888293006 81 3695 37 3863 35 6287
9453 9.9633713380876667 -5.9884283674002852 2.3785546694838158 240 223 215 0.40146647546248565 33 3241 34 6195 32 2509
10610 15.613897083362991 -5.3556936735820155 -0.6690801848475022 169 168 182 0.41324558834348907 36 4345 37 3869 39 4496
339 4.2564790936428061 0.55000013967944517 9.8278871017392344 66 55 51 0.49429687668854505 16 2669 15 1019
2696 5.5612045829403405 -5.2533194801335981 5.3856237153250772 140 113 87 0.63641663304216878 14 2747 20 1859 89 1003 97 3061 90 3053
2329 7.1965585739838538 -1.6541662807179742 7.0300294414339515 212 211 219 0.73788694142920808 13 300 74 1284 87 1485 33 817 11 148
9451 1.1458324866936511 -2.3198245410741651 4.8809562990025865 134 149 174 0.96396796151371433 34 6179 36 8826
10616 19.226753383250312 -4.9817739042233935 -2.5244827438520305 126 117 120 0.25051037295496825 81 3812 37 4059 39 5083 38 5813
8145 1.8321309450546848 -1.8834282012202297 3.131387879983996 101 110 119 0.89933710429182889 59 3623 92 4597 91 3709
5431 2.1786618751122804 -3.0320808242425983 3.290479595408236 242 250 253 1.7687482326600927 4 3280 22 3891 64 2055
6822 5.7339034877060326 -3.7413883698711006 5.5437202801331802 170 173 177 1.2409853017956427 66 617 103 1919
8154 -11.664358260693053 -17.253385337604904 8.3202134303922399 44 45 34 0.48688262546947081 94 4637 92 4708 93 4328 98 3435
5432 2.9545380087031088 -3.7082218001334639 3.8646759036179832 0 0 0 0.46853905389042605 31 3752 55 2969
6315 1.6697228152210699 -1.7690282208157213 4.0942643838538277 78 87 92 1.1181927404821872 61 2223 62 2176 101 2178
10619 16.982938325334345 -3.7283074546944746 -0.21025314030425515 158 152 148 1.1088968332454974 38 6220 37 4209 39 5359 82 1959
12010 9.6289001099905178 -0.037755937735489256 6.1387507945711972 130 106 94 0.69859838949193631 44 1910 10 746 47 1320 48 648 49 1023
10623 24.282844203747636 -5.6038208546766288 -7.3132011298993449 47 57 59 1.6369288656185335 36 8419 38 6365 37 4218
357 7.2334217300453609 -1.6813021949147049 6.9975233753042385 201 182 178 0.57301593416752639 13 294 15 1942 17 2112 74 587 87 705 21 1631 10 347 47 142 48 230 45 337 30 848
9751 31.707466742156054 -6.7321008710222356 -11.080823491585177 103 93 86 2.3055526776283073 34 5989 35 7888 36 8273
10630 1.5408417087471546 -2.8707028840370135 4.7897582385810002 58 58 66 1.9105679762840175 36 8728 37 4358 39 6020
10632 19.799396777824171 -12.50701002928982 -1.2463374410312424 93 92 97 1.3638092732118463 35 8477 38 6917 37 4401 39 6016
10777 16.910118340455835 -1.2717761989984153 1.7280664170752447 133 101 90 1.4274099513912661 35 8592 39 6049 43 3177
5448 10.450062292404288 -18.775427619652358 6.8524629468373561 138 149 151 0.52893158555452902 42 323 110 553 111 26 1 34
6395 1.9589479918101165 -2.4295950750931015 3.1167244997813266 74 81 97 1.2521209506127819 115 2726 66 2278
361 7.1099707173782383 -1.5945013580806262 7.1209291780385904 102 89 98 0.76361668557435924 13 1172 16 2117 15 1956 17 2145 21 1642 74 1587 87 1486 47 157 48 1196 49 754 85 1190
362 7.1120977318571805 -1.5690608221821358 7.1522045545369668 111 101 110 0.22863312169742855 16 3128 15 1962 17 2153 24 1288 74 1300 87 1491 47 162 48 238
9240 22.988065975526816 -13.423226530584058 2.183712806048824 75 74 82 2.2969244795482173 105 3626 106 2750 33 3238 117 4411 107 1885 80 3406
10635 16.893069754239601 -4.7790763339403304 -1.6370979595036619 189 185 186 0.6419477917746601 38 6881 37 4430 39 5976
10637 20.461023301240509 -11.347572730738834 -0.57732412144507594 108 106 111 0.6413854400498038 38 6971 37 4489 39 6065
367 7.180174132560647 -1.4486355984597317 7.2096866434884941 116 106 117 0.27048351689148448 13 338 15 1987 17 734 16 673 24 1319 74 1331
5455 2.2686106113379556 -1.9015579754081966 3.5900649705981182 214 222 241 0.19316157545018797 75 637 111 589
7395 15.901896566165545 -25.556017583326589 -1.4361165798492634 26 32 32 0.78291432456155585 117 1871 102 1164 100 1994
368 7.1958134949385517 -1.4300240998658831 7.212355342453753 206 196 207 0.41285729692146667 16 2160 15 1992 74 1608 87 1514 25 286
369 7.2389336916120959 -1.4318702867141988 7.1891694675552031 93 83 92 0.32329940708872662 16 2163 15 1993 17 2203 24 1336 74 1609 47 183 13 1190 48 256 11 180 25 287
10643 15.699974549123136 -6.431601953293967 -1.2303758627097794 0 0 0 0.31421006042548666 36 9034 38 7082
371 7.2684887777992753 -1.4024903515805796 7.1927546131473274 120 110 119 0.32858019121590093 13 1194 15 2000 21 1688 24 1353 74 1614 45 446 25 890
1762 1.2614330288034143 -2.5374081120910845 3.9889384949963484 54 60 72 0.19778068182850453 18 1839 108 1908 19 1011
372 7.2762257612676802 -1.3311356076717178 7.2376298081819845 91 81 90 0.16784953032302244 16 3164 15 2015 17 3163
5464 1.2745399912553255 -4.0170135851654134 4.2717876124333074 153 160 184 0.562521746460378 31 1984 111 1134 67 1584 103 636
6347 2.442401386049212 -8.1289602488140336 4.9471942405702611 131 135 160 0.20343599860901126 8 411 115 1213
10650 7.2399234895834832 -1.6466647696863099 7.0086077321271381 191 183 180 0.70092417462672929 33 2006 36 4288 37 994 16 611 17 674 74 595 13 301 21 764 24 1285 87 708 34 1394 48 232 11 151 45 357 46 1411 10 1218 85 1195 83 714 30 1727 35 4456
11883 5.2739639170058057 -0.69634770713611405 7.8215142737846062 186 209 193 0.81899313215101577 9 478 27 1253 47 1240 48 1317
7918 -2.8283040127704666 -25.015406627372002 9.8389611124898693 99 98 106 0.71146348387806768 104 2738 95 4112 103 2815 102 2767
383 7.380181666616898 -1.0609735678665095 7.3741239352777939 204 194 203 0.47098750509726894 13 437 16 2260 15 2084 17 2353 11 227 48 321 49 141 25 337
384 2.1393236757454499 -1.7944747298699748 3.1809058110624999 50 38 26 0.27412499679892999 16 2302 15 2086 17 3214
529 6.3955319645181108 -0.51781686135057536 8.2039431347329863 247 247 254 0.22825463379967148 16 3655 15 3227 17 3262 18 3185 47 2328 48 2372
5472 13.810002617972723 -19.787292608967952 4.250909724953031 107 119 131 1.2251423180828709 53 2417 111 1697 115 1387
386 4.5791199637944624 -0.55950620031828247 9.3948432092866625 160 146 145 0.63108315234723611 16 2329 15 2096 17 2422
10659 5.0310262326443924 -0.73287572440332482 7.8902153813759961 173 177 177 1.3378434929846514 16 896 13 1276 15 2146 16 3241 17 3235 18 2309 37 2893 33 2008 34 3828 35 4705 36 6595 38 6058 39 4599 41 1708 9 1404 28 1085 27 1960 47 1235 48 1299 12 967 45 1295 85 648
11986 1.1420154845858974 -2.5710349203241769 5.3675287128845692 248 251 255 2.2679657534161226 44 1329 27 1007 45 1032 46 872
5474 1.4285855682283497 -1.8587925864737314 2.3112712216867757 152 158 181 2.6059157235988009 42 1969 111 1766
10661 15.486367755096291 -7.2591687040409383 1.5556751370952424 160 159 175 3.1924767451722742 81 2205 37 2261
5477 1.5568208314754128 -2.2628132969468044 3.6200264082643034 122 133 153 0.18859719887542256 110 2814 111 1786
5485 2.5379018162324081 -2.3560413160592129 4.5537723564216641 46 58 72 0.30470864400126785 110 3327 111 2023 115 2332
7711 -2.7823430999835459 -30.031962332456494 6.3356898893244473 32 33 37 0.7194578890373361 102 2488 103 2539 94 4111 101 1652
398 5.0605395077801374 -0.78965237301448643 7.9578919620056254 67 63 64 0.38009891845859922 16 2328 15 2120 18 3154 21 1763 47 1212
10672 20.719883668209384 -3.54142092803029 -3.3838829794760525 110 130 255 0.20708027891787847 35 4991 38 1156 39 953
10753 1.6283412775211716 -2.224356755912885 3.0889351817391528 42 47 50 1.4443758763598664 38 6518 39 5683 40 2848
5487 2.7021854481232324 -3.0920055576864702 8.4719597408100338 0 0 0 0.26346813991085671 7 3235 110 2438
400 5.3326189326301066 -0.75774247451934174 7.9491513204630504 106 140 121 0.1217945590360246 16 3233 15 2133
5488 7.1288766939939547 -3.5067405615890594 5.7107180006022054 170 149 146 0.62284647297112261 8 2619 111 2111 87 1863 62 2092 65 2016 104 2482 67 2753 106 2530 117 3253 69 2182 107 1668 109 2908 105 3394 34 4804 10 2134 47 2459 48 2458 12 1970 45 2210 49 1970 85 1763 30 2215 84 2472 79 2573 72 1845
10674 21.150081264967092 -1.3718607131661167 -3.1896704181991602 118 117 125 0.41992202173053012 35 2730 38 1570 39 1253
10679 4.8059345287163682 -0.76290512208326511 8.1230874902210317 190 180 183 0.47891320947050264 37 2844 39 2251 40 678 9 368 28 264 27 301 47 311
2763 1.410694854945179 -1.4008025024225497 3.2236528450927491 69 80 84 0.18888543045174558 90 2699 56 2092
5495 1.8443113782379794 -1.8577307794374478 3.056124351752981 133 147 176 1.1189757657526533 7 3437 111 2236 6 237
6886 7.5944481153397927 -18.940458556015436 8.4621432011507416 104 103 111 0.64694785021213252 7 635 8 398 106 1031
408 5.1311856253069497 -0.71017217695740265 7.8458276335248947 51 139 81 0.3052087354923157 16 2368 15 2159 48 1310
10681 4.7081661194047451 -0.69545003115342596 8.1524487250886448 152 144 141 0.70976273233505893 35 4675 39 2283 40 686 41 1675 24 640 10 388 38 4316 45 360 83 711
410 4.4635124318648911 -0.33521776713364526 9.5344082250887787 166 148 156 1.3300750050805554 16 2401 15 2166 17 2497
1643 3.2464236834361295 -3.3523357277866674 3.5926895900719629 159 162 179 0.131038556231344 97 3178 57 4763 58 4235
9224 15.019486869706295 -6.2049326447530202 -0.80853838638901177 111 97 95 0.50620923775783522 117 3353 33 2602 34 3470 35 4011 81 3109 38 2867
10683 4.7687772067805332 -0.7406675384598268 7.9638037705612863 129 118 122 1.4331782633685997 37 1184 39 2290 41 652 27 333
5498 1.4285649990994678 -4.6382229982064427 3.6967480823129475 245 249 255 0.597386430705108 21 2554 111 2261
2293 2.2613768569114945 -3.2978638777320302 4.2017683092643523 159 161 166 1.254344106018269 15 2635 18 1561 108 2466 19 2355 20 634 14 1118 24 913
10684 4.635728991173738 -0.64602099858438877 8.1749485700922353 86 82 83 0.58724186348754825 34 1496 39 2310 44 1573 43 484 27 339
10765 18.230015902420764 -0.80191897097525888 2.4495777003409454 118 112 112 1.692957061425461 38 6831 39 5912 41 3514 43 3128
412 4.6378130108847531 -0.62113813915515526 8.1050366943928402 122 116 120 0.44730584453843925 16 2393 15 2174 17 2486 33 805 35 6615 39 3643 40 1712 41 2501 9 2084 44 2278 28 1799 43 2086 27 1240 45 1859 83 1431
9218 15.754214137311841 -19.615288380952904 3.4199969180164431 88 90 102 0.081906366446147405 106 1982 33 2245
10685 4.9754993596764683 -0.74973279367003687 7.7826707734836154 73 148 91 0.30419677509154458 38 4270 39 2313
414 4.4575438009167367 -0.27453257160373762 9.5568537710078267 166 148 154 0.9968737198136346 13 1268 15 2178 24 630 10 2249 11 764 45 1225 28 1082
415 4.4009797286108752 -0.34426672089004934 9.1301857863454483 238 236 255 1.8415632991024407 16 3271 15 2185
417 4.4131551945624814 -0.31844787468409236 9.0742559158109053 232 220 254 1.9473684125102366 16 2439 15 2193 17 1057
10691 9.103906014635248 -0.64683883664780184 5.1139307981570985 146 120 113 0.81380695002697978 34 4363 39 2536 43 1607 47 301 10 717 26 675
7216 0.1528328577623432 -4.0355131723297699 6.6230557418675398 208 208 215 0.85810656744446312 117 293 116 118 37 1284
419 6.4004505467969617 -0.48881473950292781 8.167244000009342 191 195 242 0.23803417976108779 13 546 16 2413 15 2202 17 2515 18 2379
1746 -9.2099360637271168 -4.428716670927332 18.384050695946126 97 102 103 0.66289388548441741 14 1083 108 763 86 1287
420 6.3293251670417439 -0.4312975657683587 8.256197232143311 110 113 182 0.44932183335363995 13 1942 16 2431 15 2206
9815 16.073837426411917 -4.4173122306412855 0.021769173861348176 237 226 222 1.8300680044977689 34 6431 35 8644 81 4226 38 6986 37 4537 39 6139 82 2207
10694 12.43713200331187 -1.2256257452673665 0.65351062807956006 123 127 130 2.0172590481214097 35 7504 38 4048 39 2735
424 6.4680933306673021 -0.36000445146614402 8.2554405905122028 168 171 227 0.3761627034914406 13 556 15 2223 11 273
10697 1.9379838255924879 -3.1766126674297803 4.5069854901498649 201 200 205 0.049281580893756449 38 5746 39 3249
9298 19.153515765232214 -10.436166309506806 1.8840628693374233 32 38 38 0.92897291694167683 106 557 107 1285 34 3125 81 2966 71 2045
8995 1.5193969039524524 -1.1299312588838559 3.1219264863005223 61 66 72 1.0621933806256258 98 3657 99 3698 96 2984
10701 17.252705248263975 -3.4132837674129095 -0.1169722882142446 179 144 125 0.76051499757333207 35 6626 39 3565
2787 0.92566362334152996 -3.9404184885175919 4.5390116285362376 170 173 188 0.34801585211506497 86 4455 56 2369 55 2866 22 3818
432 6.7799094982804284 -0.24337278096454329 7.8252667950833557 193 174 180 0.080385603448617018 13 586 15 2271 48 457
434 6.3484095567398935 -0.18368100592794701 7.9884340796140627 88 85 129 0.11562952376618747 16 2546 15 2274 17 2613
1539 1.6257049739081342 -2.1324077776786114 1.8977716063632712 207 218 236 2.6028188164155917 15 2826 21 253
435 4.4964918632873836 -0.27177864387865863 7.5220658105299263 44 34 35 0.80782360391552344 13 1380 15 2279 27 464 36 1773 12 1551 49 874
